ply
format ascii 1.0
comment alpha=3.0
element vertex 1790
property float x
property float y
property float z
property uchar red
property uchar green
property uchar blue z
end_header
80 110 -0.00000 255 255 255
80 111 -0.00000 255 255 255
80 112 -0.00000 255 255 255
80 113 -0.00000 255 255 255
80 114 -0.00000 255 255 255
80 115 -0.00000 255 255 255
80 116 -0.00000 255 255 255
80 117 -0.00000 255 255 255
80 118 -0.00000 255 255 255
80 119 -0.00000 255 255 255
80 120 -0.00000 255 255 255
81 1 -0.00000 255 255 255
81 2 0.00000 255 255 255
81 3 0.00001 255 255 255
81 4 0.00007 255 255 255
81 5 -0.00066 255 255 255
81 6 -0.02113 255 255 255
81 7 -0.26147 255 255 255
81 8 -1.93568 255 255 255
81 9 -4.37420 255 255 255
81 10 -6.19883 255 255 255
81 11 -6.74276 255 255 255
81 12 -6.19167 255 255 255
81 13 -5.23180 255 255 255
81 14 -4.26045 255 255 255
81 15 -3.40935 255 255 255
81 16 -2.79400 255 255 255
81 17 -2.44351 255 255 255
81 18 -1.88036 255 255 255
81 19 -1.24869 255 255 255
81 20 -2.31202 255 255 255
81 21 -3.68084 255 255 255
81 22 -1.99881 255 255 255
81 23 0.87715 255 255 255
81 24 2.94333 255 255 255
81 25 4.56411 255 255 255
81 26 5.23088 255 255 255
81 27 5.67871 255 255 255
81 28 6.33091 255 255 255
81 29 7.51321 255 255 255
81 30 8.78041 255 255 255
81 31 9.74361 255 255 255
81 32 10.12667 255 255 255
81 33 9.64484 255 255 255
81 34 9.03221 255 255 255
81 35 9.19630 255 255 255
81 36 13.27593 255 255 255
81 37 18.11056 255 255 255
81 38 17.06753 255 255 255
81 39 11.87169 255 255 255
81 40 5.69907 255 255 255
81 41 1.21601 255 255 255
81 42 -1.50750 255 255 255
81 43 -0.93847 255 255 255
81 44 1.33097 255 255 255
81 45 3.70967 255 255 255
81 46 5.39406 255 255 255
81 47 6.59453 255 255 255
81 48 7.87729 255 255 255
81 49 9.71372 255 255 255
81 50 16.78850 255 255 255
81 51 24.48470 255 255 255
81 52 29.13714 255 255 255
81 53 30.22153 255 255 255
81 54 30.33603 255 255 255
81 55 30.14413 255 255 255
81 56 29.81250 255 255 255
81 57 29.38847 255 255 255
81 58 28.90028 255 255 255
81 59 28.37084 255 255 255
81 60 27.80701 255 255 255
81 61 27.13866 255 255 255
81 62 25.75003 255 255 255
81 63 18.96231 255 255 255
81 64 11.52446 255 255 255
81 65 12.62826 255 255 255
81 66 18.41415 255 255 255
81 67 22.44173 255 255 255
81 68 23.29755 255 255 255
81 69 23.39839 255 255 255
81 70 23.35722 255 255 255
81 71 23.30777 255 255 255
81 72 23.24515 255 255 255
81 73 22.77005 255 255 255
81 74 18.71102 255 255 255
81 75 15.51908 255 255 255
81 76 -2.07602 255 255 255
81 77 -20.23116 255 255 255
81 78 -29.44030 255 255 255
81 79 -20.48363 255 255 255
81 80 -7.69732 255 255 255
81 81 5.05487 255 255 255
81 82 14.64292 255 255 255
81 83 19.91667 255 255 255
81 84 22.75910 255 255 255
81 85 23.25190 255 255 255
81 86 23.27110 255 255 255
81 87 23.11257 255 255 255
81 88 22.81855 255 255 255
81 89 22.38122 255 255 255
81 90 21.75334 255 255 255
81 91 20.82641 255 255 255
81 92 19.24970 255 255 255
81 93 14.87385 255 255 255
81 94 9.01532 255 255 255
81 95 3.98635 255 255 255
81 96 1.32336 255 255 255
81 97 0.31638 255 255 255
81 98 0.06996 255 255 255
81 99 0.01428 255 255 255
81 100 0.00311 255 255 255
81 101 0.00094 255 255 255
81 102 0.00042 255 255 255
81 103 0.00023 255 255 255
81 104 0.00013 255 255 255
81 105 0.00007 255 255 255
81 106 0.00003 255 255 255
81 107 0.00001 255 255 255
81 108 0.00000 255 255 255
81 109 0.00000 255 255 255
81 110 -0.00000 255 255 255
81 111 -0.00000 255 255 255
81 112 -0.00000 255 255 255
81 113 -0.00000 255 255 255
81 114 -0.00000 255 255 255
81 115 -0.00000 255 255 255
81 116 -0.00000 255 255 255
81 117 -0.00000 255 255 255
81 118 -0.00000 255 255 255
81 119 -0.00000 255 255 255
81 120 -0.00000 255 255 255
82 1 -0.00000 255 255 255
82 2 0.00000 255 255 255
82 3 0.00001 255 255 255
82 4 -0.00006 255 255 255
82 5 -0.00242 255 255 255
82 6 -0.03174 255 255 255
82 7 -0.25000 255 255 255
82 8 -1.13639 255 255 255
82 9 -2.65751 255 255 255
82 10 -3.97992 255 255 255
82 11 -4.43271 255 255 255
82 12 -3.87426 255 255 255
82 13 -2.91621 255 255 255
82 14 -1.94604 255 255 255
82 15 -1.09549 255 255 255
82 16 -0.48077 255 255 255
82 17 -0.13304 255 255 255
82 18 0.42021 255 255 255
82 19 1.06518 255 255 255
82 20 0.64277 255 255 255
82 21 -0.06938 255 255 255
82 22 1.06070 255 255 255
82 23 2.79581 255 255 255
82 24 3.95860 255 255 255
82 25 4.87978 255 255 255
82 26 4.87602 255 255 255
82 27 4.72218 255 255 255
82 28 4.95331 255 255 255
82 29 5.94198 255 255 255
82 30 7.10644 255 255 255
82 31 8.04685 255 255 255
82 32 8.55601 255 255 255
82 33 8.35583 255 255 255
82 34 8.07309 255 255 255
82 35 8.54506 255 255 255
82 36 11.56111 255 255 255
82 37 14.85736 255 255 255
82 38 13.72481 255 255 255
82 39 9.88903 255 255 255
82 40 5.53870 255 255 255
82 41 1.30154 255 255 255
82 42 -1.36164 255 255 255
82 43 -0.77599 255 255 255
82 44 1.48882 255 255 255
82 45 3.85183 255 255 255
82 46 5.51452 255 255 255
82 47 6.68990 255 255 255
82 48 7.95315 255 255 255
82 49 9.78974 255 255 255
82 50 16.78005 255 255 255
82 51 24.37612 255 255 255
82 52 28.93011 255 255 255
82 53 29.97136 255 255 255
82 54 30.03257 255 255 255
82 55 29.77602 255 255 255
82 56 29.37705 255 255 255
82 57 28.89165 255 255 255
82 58 28.35080 255 255 255
82 59 27.77501 255 255 255
82 60 27.16700 255 255 255
82 61 26.45306 255 255 255
82 62 25.02773 255 255 255
82 63 18.42022 255 255 255
82 64 11.19002 255 255 255
82 65 12.21961 255 255 255
82 66 17.76648 255 255 255
82 67 21.61697 255 255 255
82 68 22.43929 255 255 255
82 69 22.52754 255 255 255
82 70 22.47626 255 255 255
82 71 22.41672 255 255 255
82 72 22.31950 255 255 255
82 73 21.77701 255 255 255
82 74 17.75126 255 255 255
82 75 14.52791 255 255 255
82 76 -2.96918 255 255 255
82 77 -21.04468 255 255 255
82 78 -30.13076 255 255 255
82 79 -21.14812 255 255 255
82 80 -8.52600 255 255 255
82 81 2.48796 255 255 255
82 82 11.52555 255 255 255
82 83 18.21786 255 255 255
82 84 21.26787 255 255 255
82 85 21.91486 255 255 255
82 86 21.91178 255 255 255
82 87 21.68753 255 255 255
82 88 21.31797 255 255 255
82 89 20.80266 255 255 255
82 90 20.10133 255 255 255
82 91 19.13321 255 255 255
82 92 17.60355 255 255 255
82 93 13.53105 255 255 255
82 94 8.14890 255 255 255
82 95 3.60697 255 255 255
82 96 1.23263 255 255 255
82 97 0.32693 255 255 255
82 98 0.08084 255 255 255
82 99 0.01869 255 255 255
82 100 0.00411 255 255 255
82 101 0.00095 255 255 255
82 102 0.00028 255 255 255
82 103 0.00012 255 255 255
82 104 0.00006 255 255 255
82 105 0.00003 255 255 255
82 106 0.00002 255 255 255
82 107 0.00001 255 255 255
82 108 0.00000 255 255 255
82 109 0.00000 255 255 255
82 110 0.00000 255 255 255
82 111 -0.00000 255 255 255
82 112 -0.00000 255 255 255
82 113 -0.00000 255 255 255
82 114 -0.00000 255 255 255
82 115 -0.00000 255 255 255
82 116 -0.00000 255 255 255
82 117 -0.00000 255 255 255
82 118 -0.00000 255 255 255
82 119 -0.00000 255 255 255
82 120 -0.00000 255 255 255
83 1 -0.00000 255 255 255
83 2 0.00000 255 255 255
83 3 -0.00001 255 255 255
83 4 -0.00028 255 255 255
83 5 -0.00383 255 255 255
83 6 -0.03200 255 255 255
83 7 -0.16113 255 255 255
83 8 -0.91674 255 255 255
83 9 -2.44134 255 255 255
83 10 -4.29338 255 255 255
83 11 -4.88635 255 255 255
83 12 -4.13458 255 255 255
83 13 -2.76989 255 255 255
83 14 -1.40065 255 255 255
83 15 -0.22932 255 255 255
83 16 0.63916 255 255 255
83 17 1.10658 255 255 255
83 18 1.85635 255 255 255
83 19 2.87579 255 255 255
83 20 4.14478 255 255 255
83 21 5.04097 255 255 255
83 22 6.07524 255 255 255
83 23 6.31201 255 255 255
83 24 5.75557 255 255 255
83 25 5.43676 255 255 255
83 26 4.47888 255 255 255
83 27 3.72227 255 255 255
83 28 3.69475 255 255 255
83 29 4.45184 255 255 255
83 30 5.53125 255 255 255
83 31 6.49063 255 255 255
83 32 7.11987 255 255 255
83 33 7.09468 255 255 255
83 34 7.00130 255 255 255
83 35 7.49847 255 255 255
83 36 8.98347 255 255 255
83 37 10.26824 255 255 255
83 38 10.31775 255 255 255
83 39 8.68836 255 255 255
83 40 5.06430 255 255 255
83 41 1.21811 255 255 255
83 42 -1.31982 255 255 255
83 43 -0.69929 255 255 255
83 44 1.56135 255 255 255
83 45 3.90164 255 255 255
83 46 5.53278 255 255 255
83 47 6.67062 255 255 255
83 48 7.90070 255 255 255
83 49 9.70905 255 255 255
83 50 16.74847 255 255 255
83 51 24.38914 255 255 255
83 52 29.06476 255 255 255
83 53 30.08303 255 255 255
83 54 30.10549 255 255 255
83 55 29.80349 255 255 255
83 56 29.35663 255 255 255
83 57 28.82543 255 255 255
83 58 28.24177 255 255 255
83 59 27.62531 255 255 255
83 60 26.97691 255 255 255
83 61 26.22264 255 255 255
83 62 24.78093 255 255 255
83 63 18.20517 255 255 255
83 64 11.01256 255 255 255
83 65 11.89422 255 255 255
83 66 17.34830 255 255 255
83 67 21.24894 255 255 255
83 68 22.05315 255 255 255
83 69 22.13225 255 255 255
83 70 22.07413 255 255 255
83 71 22.00538 255 255 255
83 72 21.89168 255 255 255
83 73 21.33610 255 255 255
83 74 17.23068 255 255 255
83 75 14.00446 255 255 255
83 76 -3.64616 255 255 255
83 77 -21.63799 255 255 255
83 78 -30.86028 255 255 255
83 79 -21.90446 255 255 255
83 80 -9.50374 255 255 255
83 81 1.19613 255 255 255
83 82 10.16343 255 255 255
83 83 17.02348 255 255 255
83 84 20.41954 255 255 255
83 85 21.09452 255 255 255
83 86 21.04605 255 255 255
83 87 20.73877 255 255 255
83 88 20.27590 255 255 255
83 89 19.66849 255 255 255
83 90 18.89561 255 255 255
83 91 17.90564 255 255 255
83 92 16.43199 255 255 255
83 93 12.57525 255 255 255
83 94 7.53967 255 255 255
83 95 3.32280 255 255 255
83 96 1.15182 255 255 255
83 97 0.31025 255 255 255
83 98 0.08186 255 255 255
83 99 0.02061 255 255 255
83 100 0.00493 255 255 255
83 101 0.00114 255 255 255
83 102 0.00028 255 255 255
83 103 0.00008 255 255 255
83 104 0.00003 255 255 255
83 105 0.00002 255 255 255
83 106 0.00001 255 255 255
83 107 0.00000 255 255 255
83 108 0.00000 255 255 255
83 109 0.00000 255 255 255
83 110 0.00000 255 255 255
83 111 -0.00000 255 255 255
83 112 -0.00000 255 255 255
83 113 -0.00000 255 255 255
83 114 -0.00000 255 255 255
83 115 -0.00000 255 255 255
83 116 -0.00000 255 255 255
83 117 -0.00000 255 255 255
83 118 -0.00000 255 255 255
83 119 -0.00000 255 255 255
83 120 -0.00000 255 255 255
84 1 -0.00000 255 255 255
84 2 -0.00000 255 255 255
84 3 -0.00003 255 255 255
84 4 -0.00046 255 255 255
84 5 -0.00406 255 255 255
84 6 -0.02234 255 255 255
84 7 -0.12580 255 255 255
84 8 -1.25440 255 255 255
84 9 -3.45727 255 255 255
84 10 -5.75671 255 255 255
84 11 -6.40817 255 255 255
84 12 -5.30865 255 255 255
84 13 -3.55882 255 255 255
84 14 -1.82132 255 255 255
84 15 -0.30571 255 255 255
84 16 0.77794 255 255 255
84 17 1.34916 255 255 255
84 18 2.34698 255 255 255
84 19 3.93320 255 255 255
84 20 7.43090 255 255 255
84 21 10.56695 255 255 255
84 22 11.13364 255 255 255
84 23 9.37657 255 255 255
84 24 6.98823 255 255 255
84 25 5.59631 255 255 255
84 26 4.12102 255 255 255
84 27 3.11408 255 255 255
84 28 2.76359 255 255 255
84 29 3.32175 255 255 255
84 30 4.31462 255 255 255
84 31 5.15533 255 255 255
84 32 5.68160 255 255 255
84 33 5.56035 255 255 255
84 34 5.54437 255 255 255
84 35 5.99230 255 255 255
84 36 7.21479 255 255 255
84 37 8.31591 255 255 255
84 38 8.63285 255 255 255
84 39 7.62930 255 255 255
84 40 4.56375 255 255 255
84 41 1.00432 255 255 255
84 42 -1.38660 255 255 255
84 43 -0.71948 255 255 255
84 44 1.53451 255 255 255
84 45 3.84146 255 255 255
84 46 5.42787 255 255 255
84 47 6.51512 255 255 255
84 48 7.69930 255 255 255
84 49 9.48610 255 255 255
84 50 16.91062 255 255 255
84 51 24.99803 255 255 255
84 52 29.95985 255 255 255
84 53 31.00368 255 255 255
84 54 31.00419 255 255 255
84 55 30.67329 255 255 255
84 56 30.19677 255 255 255
84 57 29.63488 255 255 255
84 58 29.01801 255 255 255
84 59 28.36638 255 255 255
84 60 27.68147 255 255 255
84 61 26.89186 255 255 255
84 62 25.42151 255 255 255
84 63 18.53872 255 255 255
84 64 11.00015 255 255 255
84 65 11.92077 255 255 255
84 66 17.64117 255 255 255
84 67 21.74158 255 255 255
84 68 22.57387 255 255 255
84 69 22.65510 255 255 255
84 70 22.59422 255 255 255
84 71 22.51906 255 255 255
84 72 22.39639 255 255 255
84 73 21.82404 255 255 255
84 74 17.33498 255 255 255
84 75 14.03554 255 255 255
84 76 -3.86436 255 255 255
84 77 -22.08517 255 255 255
84 78 -31.57799 255 255 255
84 79 -22.70992 255 255 255
84 80 -10.39697 255 255 255
84 81 0.20467 255 255 255
84 82 9.51182 255 255 255
84 83 16.82763 255 255 255
84 84 20.52828 255 255 255
84 85 21.22253 255 255 255
84 86 21.10720 255 255 255
84 87 20.70739 255 255 255
84 88 20.14613 255 255 255
84 89 19.44967 255 255 255
84 90 18.61682 255 255 255
84 91 17.61045 255 255 255
84 92 16.16819 255 255 255
84 93 12.35910 255 255 255
84 94 7.39734 255 255 255
84 95 3.23673 255 255 255
84 96 1.11404 255 255 255
84 97 0.29533 255 255 255
84 98 0.07867 255 255 255
84 99 0.02067 255 255 255
84 100 0.00526 255 255 255
84 101 0.00129 255 255 255
84 102 0.00031 255 255 255
84 103 0.00008 255 255 255
84 104 0.00002 255 255 255
84 105 0.00001 255 255 255
84 106 0.00000 255 255 255
84 107 0.00000 255 255 255
84 108 0.00000 255 255 255
84 109 0.00000 255 255 255
84 110 0.00000 255 255 255
84 111 0.00000 255 255 255
84 112 -0.00000 255 255 255
84 113 -0.00000 255 255 255
84 114 -0.00000 255 255 255
84 115 -0.00000 255 255 255
84 116 -0.00000 255 255 255
84 117 -0.00000 255 255 255
84 118 -0.00000 255 255 255
84 119 -0.00000 255 255 255
84 120 -0.00000 255 255 255
85 1 -0.00000 255 255 255
85 2 -0.00000 255 255 255
85 3 -0.00006 255 255 255
85 4 -0.00051 255 255 255
85 5 -0.00304 255 255 255
85 6 -0.01725 255 255 255
85 7 -0.15775 255 255 255
85 8 -1.40442 255 255 255
85 9 -3.78693 255 255 255
85 10 -6.23790 255 255 255
85 11 -6.92377 255 255 255
85 12 -5.75314 255 255 255
85 13 -3.87306 255 255 255
85 14 -1.99912 255 255 255
85 15 -0.36527 255 255 255
85 16 0.80520 255 255 255
85 17 1.44907 255 255 255
85 18 2.55704 255 255 255
85 19 4.49367 255 255 255
85 20 9.60626 255 255 255
85 21 14.38278 255 255 255
85 22 14.35836 255 255 255
85 23 11.04210 255 255 255
85 24 7.66848 255 255 255
85 25 5.78683 255 255 255
85 26 4.02000 255 255 255
85 27 2.79800 255 255 255
85 28 2.28294 255 255 255
85 29 2.72636 255 255 255
85 30 3.65747 255 255 255
85 31 4.22245 255 255 255
85 32 4.35432 255 255 255
85 33 3.86817 255 255 255
85 34 3.77337 255 255 255
85 35 4.27705 255 255 255
85 36 5.57437 255 255 255
85 37 6.79522 255 255 255
85 38 7.37683 255 255 255
85 39 6.73000 255 255 255
85 40 4.00704 255 255 255
85 41 0.69068 255 255 255
85 42 -1.56723 255 255 255
85 43 -0.85677 255 255 255
85 44 1.38287 255 255 255
85 45 3.64689 255 255 255
85 46 5.17836 255 255 255
85 47 6.20431 255 255 255
85 48 7.33398 255 255 255
85 49 9.13196 255 255 255
85 50 14.37058 255 255 255
85 51 22.74173 255 255 255
85 52 27.98577 255 255 255
85 53 31.76066 255 255 255
85 54 32.05078 255 255 255
85 55 31.73457 255 255 255
85 56 31.24207 255 255 255
85 57 30.65878 255 255 255
85 58 30.01802 255 255 255
85 59 29.34358 255 255 255
85 60 28.64000 255 255 255
85 61 27.83609 255 255 255
85 62 26.32373 255 255 255
85 63 19.03681 255 255 255
85 64 11.06212 255 255 255
85 65 12.11690 255 255 255
85 66 18.24179 255 255 255
85 67 22.60247 255 255 255
85 68 23.49271 255 255 255
85 69 23.58516 255 255 255
85 70 23.52287 255 255 255
85 71 23.44097 255 255 255
85 72 23.30936 255 255 255
85 73 22.68687 255 255 255
85 74 17.73577 255 255 255
85 75 14.30238 255 255 255
85 76 -3.87600 255 255 255
85 77 -22.44521 255 255 255
85 78 -32.24549 255 255 255
85 79 -23.47828 255 255 255
85 80 -11.23004 255 255 255
85 81 -0.64721 255 255 255
85 82 9.13824 255 255 255
85 83 17.02809 255 255 255
85 84 21.03541 255 255 255
85 85 21.74154 255 255 255
85 86 21.55897 255 255 255
85 87 21.07207 255 255 255
85 88 20.42580 255 255 255
85 89 19.65944 255 255 255
85 90 18.78359 255 255 255
85 91 17.76231 255 255 255
85 92 16.31695 255 255 255
85 93 12.45783 255 255 255
85 94 7.44171 255 255 255
85 95 3.24107 255 255 255
85 96 1.10814 255 255 255
85 97 0.28846 255 255 255
85 98 0.07590 255 255 255
85 99 0.02006 255 255 255
85 100 0.00525 255 255 255
85 101 0.00135 255 255 255
85 102 0.00034 255 255 255
85 103 0.00008 255 255 255
85 104 0.00002 255 255 255
85 105 0.00001 255 255 255
85 106 0.00000 255 255 255
85 107 0.00000 255 255 255
85 108 0.00000 255 255 255
85 109 0.00000 255 255 255
85 110 0.00000 255 255 255
85 111 0.00000 255 255 255
85 112 -0.00000 255 255 255
85 113 -0.00000 255 255 255
85 114 -0.00000 255 255 255
85 115 -0.00000 255 255 255
85 116 -0.00000 255 255 255
85 117 -0.00000 255 255 255
85 118 -0.00000 255 255 255
85 119 -0.00000 255 255 255
85 120 -0.00000 255 255 255
86 1 -0.00000 255 255 255
86 2 -0.00001 255 255 255
86 3 -0.00006 255 255 255
86 4 -0.00041 255 255 255
86 5 -0.00236 255 255 255
86 6 -0.02004 255 255 255
86 7 -0.17772 255 255 255
86 8 -1.46349 255 255 255
86 9 -3.90025 255 255 255
86 10 -6.39787 255 255 255
86 11 -7.10169 255 255 255
86 12 -5.91450 255 255 255
86 13 -3.99504 255 255 255
86 14 -2.07396 255 255 255
86 15 -0.39693 255 255 255
86 16 0.80920 255 255 255
86 17 1.48699 255 255 255
86 18 2.65797 255 255 255
86 19 4.83220 255 255 255
86 20 10.60752 255 255 255
86 21 15.98937 255 255 255
86 22 15.70785 255 255 255
86 23 11.77895 255 255 255
86 24 8.03217 255 255 255
86 25 5.91276 255 255 255
86 26 4.00882 255 255 255
86 27 2.69701 255 255 255
86 28 2.11704 255 255 255
86 29 2.51535 255 255 255
86 30 3.39120 255 255 255
86 31 3.64474 255 255 255
86 32 3.21556 255 255 255
86 33 2.14338 255 255 255
86 34 1.76476 255 255 255
86 35 2.31590 255 255 255
86 36 3.77844 255 255 255
86 37 5.23653 255 255 255
86 38 6.09733 255 255 255
86 39 5.77192 255 255 255
86 40 3.34245 255 255 255
86 41 0.24361 255 255 255
86 42 -1.89284 255 255 255
86 43 -1.14840 255 255 255
86 44 1.06730 255 255 255
86 45 3.28006 255 255 255
86 46 4.74721 255 255 255
86 47 5.70609 255 255 255
86 48 6.78499 255 255 255
86 49 8.32200 255 255 255
86 50 10.82977 255 255 255
86 51 18.95153 255 255 255
86 52 27.25970 255 255 255
86 53 31.77615 255 255 255
86 54 32.47030 255 255 255
86 55 32.21518 255 255 255
86 56 31.71130 255 255 255
86 57 31.10729 255 255 255
86 58 30.45381 255 255 255
86 59 29.78109 255 255 255
86 60 29.09457 255 255 255
86 61 28.31612 255 255 255
86 62 26.79359 255 255 255
86 63 19.25401 255 255 255
86 64 11.00498 255 255 255
86 65 12.23394 255 255 255
86 66 18.70067 255 255 255
86 67 23.25757 255 255 255
86 68 24.21544 255 255 255
86 69 24.32380 255 255 255
86 70 24.25806 255 255 255
86 71 24.16567 255 255 255
86 72 24.01907 255 255 255
86 73 23.33253 255 255 255
86 74 18.02601 255 255 255
86 75 14.45024 255 255 255
86 76 -3.92185 255 255 255
86 77 -22.81150 255 255 255
86 78 -32.82474 255 255 255
86 79 -24.14970 255 255 255
86 80 -11.96093 255 255 255
86 81 -1.37790 255 255 255
86 82 8.76680 255 255 255
86 83 17.09041 255 255 255
86 84 21.28646 255 255 255
86 85 21.99808 255 255 255
86 86 21.75937 255 255 255
86 87 21.20432 255 255 255
86 88 20.49786 255 255 255
86 89 19.68969 255 255 255
86 90 18.79194 255 255 255
86 91 17.76018 255 255 255
86 92 16.29180 255 255 255
86 93 12.39237 255 255 255
86 94 7.36765 255 255 255
86 95 3.19973 255 255 255
86 96 1.09273 255 255 255
86 97 0.28503 255 255 255
86 98 0.07438 255 255 255
86 99 0.01951 255 255 255
86 100 0.00513 255 255 255
86 101 0.00134 255 255 255
86 102 0.00035 255 255 255
86 103 0.00009 255 255 255
86 104 0.00002 255 255 255
86 105 0.00001 255 255 255
86 106 0.00000 255 255 255
86 107 0.00000 255 255 255
86 108 0.00000 255 255 255
86 109 0.00000 255 255 255
86 110 0.00000 255 255 255
86 111 0.00000 255 255 255
86 112 0.00000 255 255 255
86 113 -0.00000 255 255 255
86 114 -0.00000 255 255 255
86 115 -0.00000 255 255 255
86 116 -0.00000 255 255 255
86 117 -0.00000 255 255 255
86 118 -0.00000 255 255 255
86 119 -0.00000 255 255 255
86 120 -0.00000 255 255 255
87 1 -0.00000 255 255 255
87 2 -0.00001 255 255 255
87 3 -0.00005 255 255 255
87 4 -0.00032 255 255 255
87 5 -0.00257 255 255 255
87 6 -0.02252 255 255 255
87 7 -0.18709 255 255 255
87 8 -1.48590 255 255 255
87 9 -3.93967 255 255 255
87 10 -6.45239 255 255 255
87 11 -7.16322 255 255 255
87 12 -5.97259 255 255 255
87 13 -4.04130 255 255 255
87 14 -2.10449 255 255 255
87 15 -0.41172 255 255 255
87 16 0.80869 255 255 255
87 17 1.50280 255 255 255
87 18 2.71277 255 255 255
87 19 4.99837 255 255 255
87 20 10.28298 255 255 255
87 21 15.05226 255 255 255
87 22 14.70534 255 255 255
87 23 11.30145 255 255 255
87 24 8.11539 255 255 255
87 25 5.97517 255 255 255
87 26 4.01728 255 255 255
87 27 2.66705 255 255 255
87 28 2.06061 255 255 255
87 29 2.43762 255 255 255
87 30 3.26534 255 255 255
87 31 3.30751 255 255 255
87 32 2.38507 255 255 255
87 33 0.75639 255 255 255
87 34 -0.04307 255 255 255
87 35 0.40902 255 255 255
87 36 1.91981 255 255 255
87 37 3.54317 255 255 255
87 38 4.65165 255 255 255
87 39 4.62634 255 255 255
87 40 2.48709 255 255 255
87 41 -0.40215 255 255 255
87 42 -2.42606 255 255 255
87 43 -1.65474 255 255 255
87 44 0.53412 255 255 255
87 45 2.69724 255 255 255
87 46 4.10681 255 255 255
87 47 5.01334 255 255 255
87 48 6.03181 255 255 255
87 49 7.23379 255 255 255
87 50 9.37415 255 255 255
87 51 17.49099 255 255 255
87 52 26.19589 255 255 255
87 53 31.16055 255 255 255
87 54 32.01174 255 255 255
87 55 31.79678 255 255 255
87 56 31.27686 255 255 255
87 57 30.65518 255 255 255
87 58 30.00539 255 255 255
87 59 29.36344 255 255 255
87 60 28.73211 255 255 255
87 61 28.02304 255 255 255
87 62 26.55210 255 255 255
87 63 19.01344 255 255 255
87 64 10.75267 255 255 255
87 65 12.12648 255 255 255
87 66 18.77788 255 255 255
87 67 23.44882 255 255 255
87 68 24.46419 255 255 255
87 69 24.58853 255 255 255
87 70 24.51860 255 255 255
87 71 24.41544 255 255 255
87 72 24.25302 255 255 255
87 73 23.51353 255 255 255
87 74 18.03291 255 255 255
87 75 14.35300 255 255 255
87 76 -4.11868 255 255 255
87 77 -23.18011 255 255 255
87 78 -33.29659 255 255 255
87 79 -24.68881 255 255 255
87 80 -12.55727 255 255 255
87 81 -1.99167 255 255 255
87 82 8.28751 255 255 255
87 83 16.78926 255 255 255
87 84 21.05080 255 255 255
87 85 21.75725 255 255 255
87 86 21.48257 255 255 255
87 87 20.88888 255 255 255
87 88 20.15448 255 255 255
87 89 19.33243 255 255 255
87 90 18.42991 255 255 255
87 91 17.39052 255 255 255
87 92 15.33815 255 255 255
87 93 11.40854 255 255 255
87 94 6.48982 255 255 255
87 95 3.02278 255 255 255
87 96 1.05524 255 255 255
87 97 0.27860 255 255 255
87 98 0.07306 255 255 255
87 99 0.01912 255 255 255
87 100 0.00501 255 255 255
87 101 0.00131 255 255 255
87 102 0.00034 255 255 255
87 103 0.00009 255 255 255
87 104 0.00002 255 255 255
87 105 0.00001 255 255 255
87 106 0.00000 255 255 255
87 107 0.00000 255 255 255
87 108 0.00000 255 255 255
87 109 0.00000 255 255 255
87 110 0.00000 255 255 255
87 111 0.00000 255 255 255
87 112 0.00000 255 255 255
87 113 0.00000 255 255 255
87 114 -0.00000 255 255 255
87 115 -0.00000 255 255 255
87 116 -0.00000 255 255 255
87 117 -0.00000 255 255 255
87 118 -0.00000 255 255 255
87 119 -0.00000 255 255 255
87 120 -0.00000 255 255 255
88 1 -0.00000 255 255 255
88 2 -0.00001 255 255 255
88 3 -0.00004 255 255 255
88 4 -0.00033 255 255 255
88 5 -0.00286 255 255 255
88 6 -0.02389 255 255 255
88 7 -0.19104 255 255 255
88 8 -1.49425 255 255 255
88 9 -3.95353 255 255 255
88 10 -6.47120 255 255 255
88 11 -7.18466 255 255 255
88 12 -5.99341 255 255 255
88 13 -4.05860 255 255 255
88 14 -2.11659 255 255 255
88 15 -0.41815 255 255 255
88 16 0.80804 255 255 255
88 17 1.51052 255 255 255
88 18 2.73994 255 255 255
88 19 4.98988 255 255 255
88 20 9.01437 255 255 255
88 21 12.36783 255 255 255
88 22 12.48494 255 255 255
88 23 10.39192 255 255 255
88 24 7.97745 255 255 255
88 25 5.97696 255 255 255
88 26 4.02203 255 255 255
88 27 2.65892 255 255 255
88 28 2.04147 255 255 255
88 29 2.40660 255 255 255
88 30 3.20180 255 255 255
88 31 3.15672 255 255 255
88 32 1.93354 255 255 255
88 33 -0.15324 255 255 255
88 34 -1.42894 255 255 255
88 35 -1.25374 255 255 255
88 36 0.15404 255 255 255
88 37 1.80106 255 255 255
88 38 3.04356 255 255 255
88 39 3.25588 255 255 255
88 40 1.37112 255 255 255
88 41 -1.31945 255 255 255
88 42 -3.23077 255 255 255
88 43 -2.42009 255 255 255
88 44 -0.23873 255 255 255
88 45 1.89648 255 255 255
88 46 3.27359 255 255 255
88 47 4.15526 255 255 255
88 48 5.13136 255 255 255
88 49 6.27110 255 255 255
88 50 8.36466 255 255 255
88 51 16.45224 255 255 255
88 52 25.18924 255 255 255
88 53 30.23141 255 255 255
88 54 31.12457 255 255 255
88 55 30.89816 255 255 255
88 56 30.35450 255 255 255
88 57 29.72609 255 255 255
88 58 29.10036 255 255 255
88 59 28.51173 255 255 255
88 60 27.95657 255 255 255
88 61 27.33850 255 255 255
88 62 25.96373 255 255 255
88 63 18.55068 255 255 255
88 64 10.39782 255 255 255
88 65 11.86379 255 255 255
88 66 18.61254 255 255 255
88 67 23.37191 255 255 255
88 68 24.43451 255 255 255
88 69 24.57723 255 255 255
88 70 24.50951 255 255 255
88 71 24.40247 255 255 255
88 72 24.23061 255 255 255
88 73 23.46270 255 255 255
88 74 17.89951 255 255 255
88 75 14.16128 255 255 255
88 76 -4.37410 255 255 255
88 77 -23.48708 255 255 255
88 78 -33.66821 255 255 255
88 79 -25.10781 255 255 255
88 80 -13.02921 255 255 255
88 81 -2.50698 255 255 255
88 82 6.39001 255 255 255
88 83 14.78533 255 255 255
88 84 19.06974 255 255 255
88 85 21.17491 255 255 255
88 86 21.04293 255 255 255
88 87 20.45552 255 255 255
88 88 19.71968 255 255 255
88 89 18.89972 255 255 255
88 90 17.99777 255 255 255
88 91 16.88786 255 255 255
88 92 14.20851 255 255 255
88 93 10.22223 255 255 255
88 94 6.06400 255 255 255
88 95 2.84745 255 255 255
88 96 1.01883 255 255 255
88 97 0.26953 255 255 255
88 98 0.07114 255 255 255
88 99 0.01870 255 255 255
88 100 0.00491 255 255 255
88 101 0.00129 255 255 255
88 102 0.00034 255 255 255
88 103 0.00009 255 255 255
88 104 0.00002 255 255 255
88 105 0.00001 255 255 255
88 106 0.00000 255 255 255
88 107 0.00000 255 255 255
88 108 0.00000 255 255 255
88 109 0.00000 255 255 255
88 110 0.00000 255 255 255
88 111 0.00000 255 255 255
88 112 0.00000 255 255 255
88 113 0.00000 255 255 255
88 114 -0.00000 255 255 255
88 115 -0.00000 255 255 255
88 116 -0.00000 255 255 255
88 117 -0.00000 255 255 255
88 118 -0.00000 255 255 255
88 119 -0.00000 255 255 255
88 120 -0.00000 255 255 255
89 1 -0.00000 255 255 255
89 2 -0.00001 255 255 255
89 3 -0.00004 255 255 255
89 4 -0.00036 255 255 255
89 5 -0.00305 255 255 255
89 6 -0.02454 255 255 255
89 7 -0.19264 255 255 255
89 8 -1.07715 255 255 255
89 9 -2.87913 255 255 255
89 10 -4.60782 255 255 255
89 11 -5.08630 255 255 255
89 12 -4.06693 255 255 255
89 13 -2.53485 255 255 255
89 14 -0.99028 255 255 255
89 15 0.38914 255 255 255
89 16 1.36353 255 255 255
89 17 1.94880 255 255 255
89 18 2.98118 255 255 255
89 19 4.78638 255 255 255
89 20 6.95905 255 255 255
89 21 8.52646 255 255 255
89 22 8.82319 255 255 255
89 23 8.18385 255 255 255
89 24 6.96701 255 255 255
89 25 5.48537 255 255 255
89 26 3.95735 255 255 255
89 27 2.83269 255 255 255
89 28 2.39918 255 255 255
89 29 2.67904 255 255 255
89 30 3.29576 255 255 255
89 31 3.17434 255 255 255
89 32 2.00135 255 255 255
89 33 0.19389 255 255 255
89 34 -0.82529 255 255 255
89 35 -1.09512 255 255 255
89 36 -0.47941 255 255 255
89 37 0.28405 255 255 255
89 38 1.36021 255 255 255
89 39 1.69453 255 255 255
89 40 0.00744 255 255 255
89 41 -2.50485 255 255 255
89 42 -4.29756 255 255 255
89 43 -3.42412 255 255 255
89 44 -1.21606 255 255 255
89 45 0.92604 255 255 255
89 46 2.30793 255 255 255
89 47 3.20050 255 255 255
89 48 4.19197 255 255 255
89 49 5.34989 255 255 255
89 50 7.46736 255 255 255
89 51 15.36047 255 255 255
89 52 23.85976 255 255 255
89 53 28.65047 255 255 255
89 54 29.48221 255 255 255
89 55 29.21481 255 255 255
89 56 28.64653 255 255 255
89 57 28.01995 255 255 255
89 58 27.42073 255 255 255
89 59 26.87513 255 255 255
89 60 26.37484 255 255 255
89 61 25.82414 255 255 255
89 62 24.53334 255 255 255
89 63 17.47698 255 255 255
89 64 9.69131 255 255 255
89 65 11.26642 255 255 255
89 66 17.84317 255 255 255
89 67 22.38561 255 255 255
89 68 23.45578 255 255 255
89 69 23.61646 255 255 255
89 70 23.56034 255 255 255
89 71 23.45993 255 255 255
89 72 23.28950 255 255 255
89 73 22.51088 255 255 255
89 74 17.13847 255 255 255
89 75 13.39590 255 255 255
89 76 -4.91666 255 255 255
89 77 -24.03533 255 255 255
89 78 -33.99923 255 255 255
89 79 -25.44449 255 255 255
89 80 -13.40972 255 255 255
89 81 -3.09522 255 255 255
89 82 4.18679 255 255 255
89 83 12.02888 255 255 255
89 84 17.57853 255 255 255
89 85 19.79284 255 255 255
89 86 19.85157 255 255 255
89 87 19.31067 255 255 255
89 88 18.58953 255 255 255
89 89 17.77666 255 255 255
89 90 16.86805 255 255 255
89 91 15.67549 255 255 255
89 92 12.94515 255 255 255
89 93 9.10754 255 255 255
89 94 5.29083 255 255 255
89 95 2.48035 255 255 255
89 96 0.88553 255 255 255
89 97 0.24945 255 255 255
89 98 0.06765 255 255 255
89 99 0.01804 255 255 255
89 100 0.00477 255 255 255
89 101 0.00126 255 255 255
89 102 0.00033 255 255 255
89 103 0.00009 255 255 255
89 104 0.00002 255 255 255
89 105 0.00001 255 255 255
89 106 0.00000 255 255 255
89 107 0.00000 255 255 255
89 108 0.00000 255 255 255
89 109 0.00000 255 255 255
89 110 0.00000 255 255 255
89 111 0.00000 255 255 255
89 112 0.00000 255 255 255
89 113 0.00000 255 255 255
89 114 0.00000 255 255 255
89 115 -0.00000 255 255 255
89 116 -0.00000 255 255 255
89 117 -0.00000 255 255 255
89 118 -0.00000 255 255 255
89 119 -0.00000 255 255 255
89 120 -0.00000 255 255 255
90 1 -0.00000 255 255 255
90 2 -0.00001 255 255 255
90 3 -0.00005 255 255 255
90 4 -0.00039 255 255 255
90 5 -0.00315 255 255 255
90 6 -0.02482 255 255 255
90 7 -0.14657 255 255 255
90 8 -0.47178 255 255 255
90 9 -1.37745 255 255 255
90 10 -2.50799 255 255 255
90 11 -2.86950 255 255 255
90 12 -2.17803 255 255 255
90 13 -1.02590 255 255 255
90 14 0.15181 255 255 255
90 15 1.18771 255 255 255
90 16 1.94770 255 255 255
90 17 2.42969 255 255 255
90 18 3.20648 255 255 255
90 19 4.41837 255 255 255
90 20 5.25910 255 255 255
90 21 5.60314 255 255 255
90 22 6.28318 255 255 255
90 23 6.62962 255 255 255
90 24 6.11302 255 255 255
90 25 5.12458 255 255 255
90 26 3.99174 255 255 255
90 27 3.16749 255 255 255
90 28 2.78863 255 255 255
90 29 2.98162 255 255 255
90 30 3.39724 255 255 255
90 31 3.30432 255 255 255
90 32 2.44830 255 255 255
90 33 1.14760 255 255 255
90 34 0.52100 255 255 255
90 35 -0.38897 255 255 255
90 36 -1.04174 255 255 255
90 37 -0.96066 255 255 255
90 38 -0.24107 255 255 255
90 39 0.07993 255 255 255
90 40 -1.49521 255 255 255
90 41 -3.86959 255 255 255
90 42 -5.54517 255 255 255
90 43 -4.58230 255 255 255
90 44 -2.31548 255 255 255
90 45 -0.13277 255 255 255
90 46 1.28496 255 255 255
90 47 2.21276 255 255 255
90 48 3.24162 255 255 255
90 49 4.43911 255 255 255
90 50 6.57482 255 255 255
90 51 12.14288 255 255 255
90 52 19.92308 255 255 255
90 53 24.37201 255 255 255
90 54 27.01966 255 255 255
90 55 26.91653 255 255 255
90 56 26.34668 255 255 255
90 57 25.71174 255 255 255
90 58 25.10882 255 255 255
90 59 24.56251 255 255 255
90 60 24.06777 255 255 255
90 61 23.53638 255 255 255
90 62 22.31122 255 255 255
90 63 15.88722 255 255 255
90 64 8.79350 255 255 255
90 65 10.24364 255 255 255
90 66 16.27842 255 255 255
90 67 20.46822 255 255 255
90 68 21.48974 255 255 255
90 69 21.65983 255 255 255
90 70 21.61907 255 255 255
90 71 21.53166 255 255 255
90 72 21.36928 255 255 255
90 73 20.61510 255 255 255
90 74 15.75716 255 255 255
90 75 12.11754 255 255 255
90 76 -5.89607 255 255 255
90 77 -24.69147 255 255 255
90 78 -34.33982 255 255 255
90 79 -25.73951 255 255 255
90 80 -13.74755 255 255 255
90 81 -3.67507 255 255 255
90 82 3.27211 255 255 255
90 83 10.50714 255 255 255
90 84 15.63347 255 255 255
90 85 17.75002 255 255 255
90 86 17.25539 255 255 255
90 87 16.69035 255 255 255
90 88 16.07137 255 255 255
90 89 16.28704 255 255 255
90 90 15.19611 255 255 255
90 91 13.50140 255 255 255
90 92 10.34741 255 255 255
90 93 7.03104 255 255 255
90 94 4.12006 255 255 255
90 95 1.91518 255 255 255
90 96 0.69447 255 255 255
90 97 0.21079 255 255 255
90 98 0.06066 255 255 255
90 99 0.01679 255 255 255
90 100 0.00454 255 255 255
90 101 0.00121 255 255 255
90 102 0.00032 255 255 255
90 103 0.00008 255 255 255
90 104 0.00002 255 255 255
90 105 0.00001 255 255 255
90 106 0.00000 255 255 255
90 107 0.00000 255 255 255
90 108 0.00000 255 255 255
90 109 0.00000 255 255 255
90 110 0.00000 255 255 255
90 111 0.00000 255 255 255
90 112 0.00000 255 255 255
90 113 0.00000 255 255 255
90 114 0.00000 255 255 255
90 115 0.00000 255 255 255
90 116 -0.00000 255 255 255
90 117 -0.00000 255 255 255
90 118 -0.00000 255 255 255
90 119 -0.00000 255 255 255
90 120 -0.00000 255 255 255
91 1 -0.00000 255 255 255
91 2 -0.00001 255 255 255
91 3 -0.00005 255 255 255
91 4 -0.00040 255 255 255
91 5 -0.00320 255 255 255
91 6 -0.01975 255 255 255
91 7 -0.07366 255 255 255
91 8 -0.20807 255 255 255
91 9 -0.84798 255 255 255
91 10 -1.76808 255 255 255
91 11 -2.06319 255 255 255
91 12 -1.42999 255 255 255
91 13 -0.40375 255 255 255
91 14 0.63883 255 255 255
91 15 1.55696 255 255 255
91 16 2.23040 255 255 255
91 17 2.63907 255 255 255
91 18 3.30192 255 255 255
91 19 4.25883 255 255 255
91 20 4.73776 255 255 255
91 21 4.81664 255 255 255
91 22 5.46889 255 255 255
91 23 6.02579 255 255 255
91 24 5.77286 255 255 255
91 25 4.99023 255 255 255
91 26 4.01235 255 255 255
91 27 3.28867 255 255 255
91 28 2.95079 255 255 255
91 29 3.12240 255 255 255
91 30 3.50681 255 255 255
91 31 3.42647 255 255 255
91 32 2.66654 255 255 255
91 33 1.58139 255 255 255
91 34 0.99108 255 255 255
91 35 -0.14728 255 255 255
91 36 -1.44860 255 255 255
91 37 -1.98606 255 255 255
91 38 -1.65996 255 255 255
91 39 -1.45111 255 255 255
91 40 -3.00230 255 255 255
91 41 -5.29529 255 255 255
91 42 -6.87291 255 255 255
91 43 -5.81638 255 255 255
91 44 -3.47485 255 255 255
91 45 -1.23695 255 255 255
91 46 0.22481 255 255 255
91 47 1.19530 255 255 255
91 48 2.26847 255 255 255
91 49 3.50794 255 255 255
91 50 5.42057 255 255 255
91 51 8.54975 255 255 255
91 52 15.34940 255 255 255
91 53 21.52454 255 255 255
91 54 24.37141 255 255 255
91 55 24.50508 255 255 255
91 56 23.97076 255 255 255
91 57 23.31872 255 255 255
91 58 22.67882 255 255 255
91 59 22.08634 255 255 255
91 60 21.54769 255 255 255
91 61 20.98884 255 255 255
91 62 19.81926 255 255 255
91 63 14.09143 255 255 255
91 64 7.75000 255 255 255
91 65 9.02659 255 255 255
91 66 14.39537 255 255 255
91 67 18.13796 255 255 255
91 68 19.07733 255 255 255
91 69 19.24550 255 255 255
91 70 19.21802 255 255 255
91 71 19.14427 255 255 255
91 72 18.99415 255 255 255
91 73 18.30465 255 255 255
91 74 14.05830 255 255 255
91 75 10.58929 255 255 255
91 76 -7.04823 255 255 255
91 77 -25.43935 255 255 255
91 78 -34.69469 255 255 255
91 79 -26.02035 255 255 255
91 80 -14.05688 255 255 255
91 81 -4.07533 255 255 255
91 82 2.69726 255 255 255
91 83 9.24490 255 255 255
91 84 13.66916 255 255 255
91 85 14.94382 255 255 255
91 86 13.95615 255 255 255
91 87 13.29171 255 255 255
91 88 13.55774 255 255 255
91 89 13.48174 255 255 255
91 90 12.02073 255 255 255
91 91 9.67536 255 255 255
91 92 7.41299 255 255 255
91 93 4.92916 255 255 255
91 94 2.71960 255 255 255
91 95 1.22522 255 255 255
91 96 0.44952 255 255 255
91 97 0.15727 255 255 255
91 98 0.04950 255 255 255
91 99 0.01461 255 255 255
91 100 0.00413 255 255 255
91 101 0.00113 255 255 255
91 102 0.00031 255 255 255
91 103 0.00008 255 255 255
91 104 0.00002 255 255 255
91 105 0.00001 255 255 255
91 106 0.00000 255 255 255
91 107 0.00000 255 255 255
91 108 0.00000 255 255 255
91 109 0.00000 255 255 255
91 110 0.00000 255 255 255
91 111 0.00000 255 255 255
91 112 0.00000 255 255 255
91 113 0.00000 255 255 255
91 114 0.00000 255 255 255
91 115 0.00000 255 255 255
91 116 -0.00000 255 255 255
91 117 -0.00000 255 255 255
91 118 -0.00000 255 255 255
91 119 -0.00000 255 255 255
91 120 -0.00000 255 255 255
92 1 -0.00000 255 255 255
92 2 -0.00001 255 255 255
92 3 -0.00005 255 255 255
92 4 -0.00041 255 255 255
92 5 -0.00264 255 255 255
92 6 -0.01103 255 255 255
92 7 -0.03472 255 255 255
92 8 -0.54222 255 255 255
92 9 -1.77641 255 255 255
92 10 -3.43605 255 255 255
92 11 -3.93711 255 255 255
92 12 -3.14172 255 255 255
92 13 -1.74827 255 255 255
92 14 -0.35269 255 255 255
92 15 0.84364 255 255 255
92 16 1.73570 255 255 255
92 17 2.23121 255 255 255
92 18 3.03772 255 255 255
92 19 4.21044 255 255 255
92 20 5.50923 255 255 255
92 21 6.29380 255 255 255
92 22 7.18288 255 255 255
92 23 7.27214 255 255 255
92 24 6.39503 255 255 255
92 25 5.32823 255 255 255
92 26 4.01519 255 255 255
92 27 3.09388 255 255 255
92 28 2.58598 255 255 255
92 29 2.83696 255 255 255
92 30 3.38012 255 255 255
92 31 3.33581 255 255 255
92 32 2.40053 255 255 255
92 33 0.97176 255 255 255
92 34 -0.06872 255 255 255
92 35 -1.16738 255 255 255
92 36 -2.44732 255 255 255
92 37 -2.92083 255 255 255
92 38 -2.84036 255 255 255
92 39 -2.79165 255 255 255
92 40 -4.40355 255 255 255
92 41 -6.69672 255 255 255
92 42 -8.23137 255 255 255
92 43 -7.10925 255 255 255
92 44 -4.70223 255 255 255
92 45 -2.40612 255 255 255
92 46 -0.89173 255 255 255
92 47 0.12512 255 255 255
92 48 1.24177 255 255 255
92 49 2.49365 255 255 255
92 50 4.13466 255 255 255
92 51 6.84639 255 255 255
92 52 13.33240 255 255 255
92 53 19.49829 255 255 255
92 54 22.67367 255 255 255
92 55 22.91331 255 255 255
92 56 22.42780 255 255 255
92 57 21.77378 255 255 255
92 58 21.10229 255 255 255
92 59 20.46238 255 255 255
92 60 19.87227 255 255 255
92 61 19.27430 255 255 255
92 62 18.15227 255 255 255
92 63 12.86431 255 255 255
92 64 6.99230 255 255 255
92 65 8.02951 255 255 255
92 66 12.94527 255 255 255
92 67 16.50235 255 255 255
92 68 17.37197 255 255 255
92 69 17.53399 255 255 255
92 70 17.51720 255 255 255
92 71 17.45628 255 255 255
92 72 17.32114 255 255 255
92 73 16.70987 255 255 255
92 74 12.85033 255 255 255
92 75 9.55060 255 255 255
92 76 -7.95215 255 255 255
92 77 -25.92446 255 255 255
92 78 -35.02805 255 255 255
92 79 -26.29234 255 255 255
92 80 -14.33200 255 255 255
92 81 -4.39437 255 255 255
92 82 2.24586 255 255 255
92 83 8.32110 255 255 255
92 84 12.17118 255 255 255
92 85 12.76762 255 255 255
92 86 11.80477 255 255 255
92 87 11.37600 255 255 255
92 88 11.15939 255 255 255
92 89 10.39207 255 255 255
92 90 9.19845 255 255 255
92 91 7.55547 255 255 255
92 92 5.54843 255 255 255
92 93 3.51786 255 255 255
92 94 1.82670 255 255 255
92 95 0.78246 255 255 255
92 96 0.29050 255 255 255
92 97 0.10520 255 255 255
92 98 0.03629 255 255 255
92 99 0.01161 255 255 255
92 100 0.00350 255 255 255
92 101 0.00101 255 255 255
92 102 0.00028 255 255 255
92 103 0.00008 255 255 255
92 104 0.00002 255 255 255
92 105 0.00001 255 255 255
92 106 0.00000 255 255 255
92 107 0.00000 255 255 255
92 108 0.00000 255 255 255
92 109 0.00000 255 255 255
92 110 0.00000 255 255 255
92 111 0.00000 255 255 255
92 112 0.00000 255 255 255
92 113 0.00000 255 255 255
92 114 0.00000 255 255 255
92 115 0.00000 255 255 255
92 116 0.00000 255 255 255
92 117 -0.00000 255 255 255
92 118 -0.00000 255 255 255
92 119 -0.00000 255 255 255
92 120 -0.00000 255 255 255
93 1 -0.00000 255 255 255
93 2 -0.00001 255 255 255
93 3 -0.00005 255 255 255
93 4 -0.00035 255 255 255
93 5 -0.00160 255 255 255
93 6 -0.00555 255 255 255
93 7 -0.06595 255 255 255
93 8 -0.39125 255 255 255
93 9 -1.50445 255 255 255
93 10 -2.59477 255 255 255
93 11 -2.92738 255 255 255
93 12 -1.97234 255 255 255
93 13 -0.61225 255 255 255
93 14 0.73655 255 255 255
93 15 1.94060 255 255 255
93 16 2.77959 255 255 255
93 17 3.24270 255 255 255
93 18 4.07182 255 255 255
93 19 5.38490 255 255 255
93 20 7.01659 255 255 255
93 21 8.20311 255 255 255
93 22 8.58543 255 255 255
93 23 8.27294 255 255 255
93 24 7.30269 255 255 255
93 25 6.19432 255 255 255
93 26 4.93194 255 255 255
93 27 3.96937 255 255 255
93 28 3.60244 255 255 255
93 29 3.86119 255 255 255
93 30 4.43496 255 255 255
93 31 4.31284 255 255 255
93 32 3.24496 255 255 255
93 33 1.83766 255 255 255
93 34 0.73545 255 255 255
93 35 -0.65434 255 255 255
93 36 -2.23704 255 255 255
93 37 -3.59364 255 255 255
93 38 -3.78561 255 255 255
93 39 -3.92177 255 255 255
93 40 -5.65973 255 255 255
93 41 -8.02870 255 255 255
93 42 -9.59553 255 255 255
93 43 -8.46733 255 255 255
93 44 -6.02613 255 255 255
93 45 -3.68625 255 255 255
93 46 -2.12666 255 255 255
93 47 -1.06022 255 255 255
93 48 0.10285 255 255 255
93 49 1.36368 255 255 255
93 50 2.95304 255 255 255
93 51 5.57070 255 255 255
93 52 10.65924 255 255 255
93 53 16.83743 255 255 255
93 54 20.15953 255 255 255
93 55 21.97164 255 255 255
93 56 21.71261 255 255 255
93 57 21.11579 255 255 255
93 58 20.46438 255 255 255
93 59 19.82479 255 255 255
93 60 19.22091 255 255 255
93 61 18.60772 255 255 255
93 62 17.51686 255 255 255
93 63 12.29734 255 255 255
93 64 6.47604 255 255 255
93 65 7.47500 255 255 255
93 66 12.30752 255 255 255
93 67 15.80852 255 255 255
93 68 16.65113 255 255 255
93 69 16.81197 255 255 255
93 70 16.80495 255 255 255
93 71 16.75462 255 255 255
93 72 16.63381 255 255 255
93 73 16.07576 255 255 255
93 74 12.27645 255 255 255
93 75 9.05738 255 255 255
93 76 -8.38214 255 255 255
93 77 -26.26018 255 255 255
93 78 -35.31203 255 255 255
93 79 -26.55205 255 255 255
93 80 -14.59098 255 255 255
93 81 -4.67863 255 255 255
93 82 1.87471 255 255 255
93 83 7.81895 255 255 255
93 84 11.47578 255 255 255
93 85 11.91047 255 255 255
93 86 10.84372 255 255 255
93 87 10.18671 255 255 255
93 88 9.86558 255 255 255
93 89 9.20763 255 255 255
93 90 8.06052 255 255 255
93 91 6.58926 255 255 255
93 92 4.80144 255 255 255
93 93 2.97309 255 255 255
93 94 1.47330 255 255 255
93 95 0.58551 255 255 255
93 96 0.19596 255 255 255
93 97 0.06977 255 255 255
93 98 0.02476 255 255 255
93 99 0.00846 255 255 255
93 100 0.00273 255 255 255
93 101 0.00084 255 255 255
93 102 0.00024 255 255 255
93 103 0.00007 255 255 255
93 104 0.00002 255 255 255
93 105 0.00001 255 255 255
93 106 0.00000 255 255 255
93 107 0.00000 255 255 255
93 108 0.00000 255 255 255
93 109 0.00000 255 255 255
93 110 0.00000 255 255 255
93 111 0.00000 255 255 255
93 112 0.00000 255 255 255
93 113 0.00000 255 255 255
93 114 0.00000 255 255 255
93 115 0.00000 255 255 255
93 116 0.00000 255 255 255
93 117 0.00000 255 255 255
93 118 -0.00000 255 255 255
93 119 -0.00000 255 255 255
93 120 -0.00000 255 255 255
94 1 -0.00000 255 255 255
94 2 -0.00001 255 255 255
94 3 -0.00005 255 255 255
94 4 -0.00023 255 255 255
94 5 -0.00086 255 255 255
94 6 -0.00822 255 255 255
94 7 -0.05233 255 255 255
94 8 0.28020 255 255 255
94 9 0.15567 255 255 255
94 10 -0.53271 255 255 255
94 11 -0.76510 255 255 255
94 12 -0.06932 255 255 255
94 13 1.03527 255 255 255
94 14 2.14735 255 255 255
94 15 3.11967 255 255 255
94 16 3.82450 255 255 255
94 17 4.24915 255 255 255
94 18 4.92874 255 255 255
94 19 5.99245 255 255 255
94 20 7.15809 255 255 255
94 21 7.94378 255 255 255
94 22 8.36962 255 255 255
94 23 8.26257 255 255 255
94 24 7.60908 255 255 255
94 25 6.70381 255 255 255
94 26 5.66921 255 255 255
94 27 4.91080 255 255 255
94 28 4.56232 255 255 255
94 29 4.75897 255 255 255
94 30 5.16779 255 255 255
94 31 5.08095 255 255 255
94 32 4.28166 255 255 255
94 33 3.14049 255 255 255
94 34 2.16329 255 255 255
94 35 0.72440 255 255 255
94 36 -0.85053 255 255 255
94 37 -2.38929 255 255 255
94 38 -3.48576 255 255 255
94 39 -4.74444 255 255 255
94 40 -6.74777 255 255 255
94 41 -9.25663 255 255 255
94 42 -10.92082 255 255 255
94 43 -9.85459 255 255 255
94 44 -7.43877 255 255 255
94 45 -5.09056 255 255 255
94 46 -3.49363 255 255 255
94 47 -2.37218 255 255 255
94 48 -1.15217 255 255 255
94 49 0.15128 255 255 255
94 50 1.76150 255 255 255
94 51 4.24012 255 255 255
94 52 7.78235 255 255 255
94 53 13.80715 255 255 255
94 54 18.87013 255 255 255
94 55 19.94391 255 255 255
94 56 19.86377 255 255 255
94 57 19.37668 255 255 255
94 58 20.05034 255 255 255
94 59 19.60584 255 255 255
94 60 19.05609 255 255 255
94 61 18.47065 255 255 255
94 62 17.39998 255 255 255
94 63 12.10084 255 255 255
94 64 6.18510 255 255 255
94 65 7.18869 255 255 255
94 66 12.08906 255 255 255
94 67 15.64167 255 255 255
94 68 16.48754 255 255 255
94 69 16.65560 255 255 255
94 70 16.65913 255 255 255
94 71 16.61842 255 255 255
94 72 16.50869 255 255 255
94 73 15.96506 255 255 255
94 74 12.10380 255 255 255
94 75 8.89909 255 255 255
94 76 -8.57285 255 255 255
94 77 -26.45904 255 255 255
94 78 -35.55735 255 255 255
94 79 -26.79970 255 255 255
94 80 -14.84263 255 255 255
94 81 -4.94672 255 255 255
94 82 1.57219 255 255 255
94 83 7.54778 255 255 255
94 84 10.81586 255 255 255
94 85 11.11577 255 255 255
94 86 9.86502 255 255 255
94 87 9.54673 255 255 255
94 88 9.33495 255 255 255
94 89 8.76168 255 255 255
94 90 7.70595 255 255 255
94 91 6.32218 255 255 255
94 92 4.62815 255 255 255
94 93 2.86929 255 255 255
94 94 1.39315 255 255 255
94 95 0.52147 255 255 255
94 96 0.15252 255 255 255
94 97 0.04922 255 255 255
94 98 0.01691 255 255 255
94 99 0.00587 255 255 255
94 100 0.00199 255 255 255
94 101 0.00064 255 255 255
94 102 0.00020 255 255 255
94 103 0.00006 255 255 255
94 104 0.00002 255 255 255
94 105 0.00000 255 255 255
94 106 0.00000 255 255 255
94 107 0.00000 255 255 255
94 108 0.00000 255 255 255
94 109 0.00000 255 255 255
94 110 0.00000 255 255 255
94 111 0.00000 255 255 255
94 112 0.00000 255 255 255
94 113 0.00000 255 255 255
94 114 0.00000 255 255 255
94 115 0.00000 255 255 255
94 116 0.00000 255 255 255
94 117 0.00000 255 255 255
94 118 0.00000 255 255 255
94 119 -0.00000 255 255 255
94 120 -0.00000 255 255 255
95 1 -0.00000 255 255 255
95 2 -0.00001 255 255 255
95 3 -0.00003 255 255 255
95 4 -0.00013 255 255 255
95 5 -0.00105 255 255 255
95 6 -0.00694 255 255 255
95 7 0.02363 255 255 255
95 8 0.42433 255 255 255
95 9 0.41010 255 255 255
95 10 -0.12470 255 255 255
95 11 -0.31304 255 255 255
95 12 0.34156 255 255 255
95 13 1.35809 255 255 255
95 14 2.37994 255 255 255
95 15 3.27528 255 255 255
95 16 3.92663 255 255 255
95 17 4.30955 255 255 255
95 18 4.93590 255 255 255
95 19 5.89759 255 255 255
95 20 6.80298 255 255 255
95 21 7.34339 255 255 255
95 22 7.82566 255 255 255
95 23 7.91261 255 255 255
95 24 7.38559 255 255 255
95 25 6.57746 255 255 255
95 26 5.62421 255 255 255
95 27 4.92488 255 255 255
95 28 4.60080 255 255 255
95 29 4.77697 255 255 255
95 30 5.16222 255 255 255
95 31 5.08819 255 255 255
95 32 4.35366 255 255 255
95 33 3.29299 255 255 255
95 34 2.36274 255 255 255
95 35 1.63239 255 255 255
95 36 0.99075 255 255 255
95 37 -1.23376 255 255 255
95 38 -3.60457 255 255 255
95 39 -5.34450 255 255 255
95 40 -7.67116 255 255 255
95 41 -10.35934 255 255 255
95 42 -12.15739 255 255 255
95 43 -11.19575 255 255 255
95 44 -8.84992 255 255 255
95 45 -6.52913 255 255 255
95 46 -4.91726 255 255 255
95 47 -3.74401 255 255 255
95 48 -2.45593 255 255 255
95 49 -1.09038 255 255 255
95 50 0.55200 255 255 255
95 51 2.88010 255 255 255
95 52 6.24215 255 255 255
95 53 12.49246 255 255 255
95 54 16.51281 255 255 255
95 55 16.40939 255 255 255
95 56 14.89229 255 255 255
95 57 17.14844 255 255 255
95 58 18.51301 255 255 255
95 59 19.69876 255 255 255
95 60 19.41374 255 255 255
95 61 18.91218 255 255 255
95 62 17.88036 255 255 255
95 63 12.34348 255 255 255
95 64 6.15291 255 255 255
95 65 7.19121 255 255 255
95 66 12.35155 255 255 255
95 67 16.12851 255 255 255
95 68 17.01059 255 255 255
95 69 17.19130 255 255 255
95 70 17.20483 255 255 255
95 71 17.17219 255 255 255
95 72 17.06859 255 255 255
95 73 16.52204 255 255 255
95 74 12.41942 255 255 255
95 75 9.18131 255 255 255
95 76 -8.47740 255 255 255
95 77 -26.45791 255 255 255
95 78 -35.76005 255 255 255
95 79 -27.03784 255 255 255
95 80 -15.09165 255 255 255
95 81 -5.20657 255 255 255
95 82 1.30641 255 255 255
95 83 7.47843 255 255 255
95 84 10.34836 255 255 255
95 85 10.44293 255 255 255
95 86 9.31732 255 255 255
95 87 9.02094 255 255 255
95 88 9.35066 255 255 255
95 89 9.09547 255 255 255
95 90 8.33801 255 255 255
95 91 6.80825 255 255 255
95 92 5.08196 255 255 255
95 93 3.22142 255 255 255
95 94 1.56971 255 255 255
95 95 0.56904 255 255 255
95 96 0.14358 255 255 255
95 97 0.04025 255 255 255
95 98 0.01247 255 255 255
95 99 0.00414 255 255 255
